X   Y   Z
5.431626154       -7.930779023       -0.528502101
5.31846411       -7.192626403       -0.577374753
4.281111449       -7.352014274       -0.617149243
4.277686436       -6.766254916       -0.657431535
4.294898403       -6.278783188       -0.696458261
4.310101331       -5.833187351       -0.73556112
3.485458238       -5.995007822       -0.758971166
3.614560991       -5.724649822       -0.805269487
3.681336657       -5.38523549       -0.839005772
7.700462136       -10.47384279       -0.362667126
5.865505992       -10.13211397       -0.421107819
5.691651843       -9.054774719       -0.484349516
5.399967918       -7.936673073       -0.527788395
5.294599966       -7.20649692       -0.577181515
4.258535387       -7.365113898       -0.617149243
4.256907686       -6.779347077       -0.657431535
4.277853898       -6.295224822       -0.696822923
4.302783357       -5.860818441       -0.737377333
3.466552419       -6.004812107       -0.758862388
3.59381553       -5.730664455       -0.804560846
3.670369662       -5.404709054       -0.840281429
7.655910347       -10.4804669       -0.36208151
5.829911262       -10.14226396       -0.420784315
5.655910046       -9.059482144       -0.483670887
5.373915708       -7.950721242       -0.527623708
5.270700418       -7.220288463       -0.576988277
4.244858281       -7.393713382       -0.618451545
4.240308204       -6.799140471       -0.658086352
4.264649197       -6.31739825       -0.69782583
4.287713807       -5.878010783       -0.737881827
3.448113647       -6.01541917       -0.758862388
3.565717506       -5.7248056       -0.802198655
3.647669445       -5.406899858       -0.838878217
6.436140684       -10.36948016       -0.109489497
7.019538684       -10.44416991       -0.229759065
7.592013638       -10.46022045       -0.360575629
5.794309128       -10.15229024       -0.420460781
5.62177213       -9.066603556       -0.483128008
5.347271577       -7.963855053       -0.527404125
5.250282129       -7.23884809       -0.577181515
4.228081961       -7.417099395       -0.619319746
4.216804864       -6.807881022       -0.657677106
4.250793927       -6.338723117       -0.698737542
4.271411975       -5.893554409       -0.738184559
3.435050958       -6.035472642       -0.760059188
3.549182097       -5.737407253       -0.802434868
3.643211894       -5.436191433       -0.841684643
6.98413242       -10.46066703       -0.229649541
7.528313734       -10.43968047       -0.359069747
5.757715394       -10.16045522       -0.420065393
5.59183446       -9.080405703       -0.482947048
5.321705403       -7.978560739       -0.527294332
5.228048876       -7.25492167       -0.577181515
4.211201916       -7.440452297       -0.620188007
4.19537651       -6.81993726       -0.65759521
4.234087474       -6.35587826       -0.699193399
4.254473438       -5.908245633       -0.738386321
3.418474437       -6.049444798       -0.760494363
3.524805837       -5.737269965       -0.800899453
3.629264876       -5.451471355       -0.842322473
6.36769454       -10.40110169       -0.109408755
6.946480563       -10.47371302       -0.229466987
7.501489902       -10.47004114       -0.359320713
5.722596258       -10.17110385       -0.41977783
5.568640961       -9.105188703       -0.483354208
5.293893164       -7.989856297       -0.526964957
5.216223418       -7.285532298       -0.578340885
4.192264053       -7.46029309       -0.620766769
4.171835548       -6.828523802       -0.657185964
4.209622229       -6.361364459       -0.698372881
4.229380378       -5.91156066       -0.737175571
3.396494129       -6.053835181       -0.759732793
3.500463692       -5.737037072       -0.799364036
3.616899817       -5.469198145       -0.843343022
3.53671769       -4.946684122       -0.842180079
6.911014353       -10.48996549       -0.229357449
7.460057559       -10.4799762       -0.358874542
5.688928351       -10.18425042       -0.419598093
5.537050143       -9.116253347       -0.483037528
5.264415149       -7.998553321       -0.526470835
5.196739344       -7.30556687       -0.578662929
4.172272117       -7.478345541       -0.621200869
4.15190021       -6.842994761       -0.657349697
4.186803805       -6.369256519       -0.69782583
4.212376726       -5.926130185       -0.737377333
3.384193831       -6.075516902       -0.761147153
3.473068847       -5.731613575       -0.797119981
3.597380598       -5.476124306       -0.842705193
3.528408327       -4.967201566       -0.843826357
6.286698121       -10.41172814       -0.109112713
6.870039067       -10.49773335       -0.229065371
7.389198508       -10.44813384       -0.357006115
5.65329466       -10.19379048       -0.419274588
5.509571822       -9.134053092       -0.483082768
5.241490609       -8.017174501       -0.526635523
5.176605207       -7.324735698       -0.578920599
4.151725356       -7.495473202       -0.62156261
4.132944071       -6.859114872       -0.657677105
4.162343448       -6.374567205       -0.697005312
4.190158243       -5.933337059       -0.736671076
3.361689895       -6.078911239       -0.760276746
3.451884104       -5.736285918       -0.796293205
3.578937173       -5.484643323       -0.842322473
3.506298683       -4.968291892       -0.842180079
6.260896893       -10.44125792       -0.109220367
6.832350911       -10.51037757       -0.228882817
7.350788079       -10.46175716       -0.35669936
5.613317668       -10.19532853       -0.41862755
5.480496354       -9.149199966       -0.482992288
5.213606773       -8.028192267       -0.526306147
5.150668295       -7.335682622       -0.578534123
4.131112991       -7.512544877       -0.621924409
4.121092581       -6.887156638       -0.659150414
4.146560382       -6.393155172       -0.697643499
4.178792426       -5.955937387       -0.737881826
3.343024227       -6.089196145       -0.760276746
3.429684659       -5.739177522       -0.795230215
3.56748828       -5.503920007       -0.84359813
3.490471211       -4.978214392       -0.842042927
6.216555529       -10.43979641       -0.109005067
6.770243744       -10.48509248       -0.227878792
7.306641641       -10.46704747       -0.356113744
5.582971082       -10.21425616       -0.418699434
5.453933108       -9.168546127       -0.483128008
5.188410693       -8.043311054       -0.526251252
5.123571092       -7.344902166       -0.578018841
4.121904392       -7.550570962       -0.624022552
4.102998582       -6.904908515       -0.659641497
4.132859485       -6.415055471       -0.698646407
4.157086727       -5.963832728       -0.737276422
3.32290011       -6.09680532       -0.759950351
3.401418896       -5.731739652       -0.792749947
3.545216667       -5.506499978       -0.842322473
3.475181706       -4.988899541       -0.842042927
6.178389459       -10.44849083       -0.108897414
7.264240753       -10.47462871       -0.355611784
5.543505659       -10.21640418       -0.418088367
5.426795041       -9.186956037       -0.483218488
5.163171025       -8.058349967       -0.526196355
5.103855184       -7.364687667       -0.578340885
4.099670706       -7.56493524       -0.624167272
4.080275692       -6.914888677       -0.659395985
4.113695745       -6.428543638       -0.698737543
4.135938301       -5.972468796       -0.736771928
3.303706504       -6.10609705       -0.759841573
3.383314056       -5.741292696       -0.792631811
3.530443594       -5.520692592       -0.842832747
3.465496549       -5.007683012       -0.843414787
6.146305203       -10.4673965       -0.108897414
6.746607625       -10.5905241       -0.229266179
7.225265316       -10.48698806       -0.355277133
5.509292322       -10.22808446       -0.417872687
5.402627906       -9.210455017       -0.483580407
5.140568553       -8.077522337       -0.526415939
5.079539073       -7.377845339       -0.578147647
4.073135182       -7.57132852       -0.623660812
4.051987874       -6.915335692       -0.658250027
4.092351235       -6.438612636       -0.698464017
4.132257217       -6.006440855       -0.739395367
3.28119501       -6.109197813       -0.758971166
3.364681113       -5.749931422       -0.792395598
3.518807675       -5.539870285       -0.844108406
3.45685098       -5.028086492       -0.845061008
6.112651448       -10.48361307       -0.108870503
6.711411621       -10.60694866       -0.229174895
7.172167239       -10.47858423       -0.354245317
5.459509959       -10.21056829       -0.416470786
5.378870143       -9.234756294       -0.483987596
5.128566922       -8.113511084       -0.527733499
5.053499999       -7.388452612       -0.577761171
4.046598428       -7.577630527       -0.623154351
4.031253866       -6.928595583       -0.658331922
4.068857418       -6.445242919       -0.69782583
4.118301094       -6.025661203       -0.740202534
3.261033799       -6.116604218       -0.75864483
3.33305602       -5.736186714       -0.789088553
3.510791698       -5.564899955       -0.846277061
3.444201965       -5.042758112       -0.845746938
6.076451131       -10.49539342       -0.108798738
6.611805202       -10.52082391       -0.226874751
7.096706299       -10.43688974       -0.35209806
5.427690244       -10.22638714       -0.416434845
5.365016991       -9.276292643       -0.485299554
5.099934451       -8.123288325       -0.527349229
5.027443598       -7.39896902       -0.577374753
4.026601677       -7.596178481       -0.623660812
4.008981335       -6.939204998       -0.658168189
4.047477221       -6.455164564       -0.697552305
4.102030716       -6.041560112       -0.740606176
3.249227437       -6.139759408       -0.760276747
3.307005621       -5.731763476       -0.787080652
3.497388688       -5.581527982       -0.847169999
3.438169613       -5.067235614       -0.84807909
6.03375748       -10.49578144       -0.108610351
6.488967556       -10.39602219       -0.223753122
7.060736372       -10.45281456       -0.351902855
5.379987272       -10.21204538       -0.415176739
5.337527481       -9.294441349       -0.485390064
5.074460336       -8.138048761       -0.527294332
5.001928725       -7.410222829       -0.57705265
3.99584719       -7.594373883       -0.622503171
3.98916093       -6.954065204       -0.65841376
4.031865587       -6.474314204       -0.698281686
4.081250722       -6.050816889       -0.740202533
3.223441575       -6.13649811       -0.758644829
3.288417951       -5.740159309       -0.786844439
3.485488936       -5.600652485       -0.848445716
3.422053657       -5.076938519       -0.84794188
5.995084267       -10.50295322       -0.108493727
6.45967657       -10.42013027       -0.223844407
7.021393611       -10.46363649       -0.35154031
5.342148803       -10.21610411       -0.414673497
5.299090968       -9.293416703       -0.484485236
5.047366203       -8.150183016       -0.527074749
4.980282266       -7.427191268       -0.577181515
3.9632952       -7.588915577       -0.621056208
3.969287337       -6.968868937       -0.65865933
4.011460096       -6.48580608       -0.69819055
4.064329602       -6.065789247       -0.740505265
3.206438278       -6.149884439       -0.759080003
3.273246793       -5.75453638       -0.787435001
3.469332956       -5.613006614       -0.848700824
3.409217451       -5.091528735       -0.848627811
5.956917199       -10.51085674       -0.108386073
6.494774602       -10.54887862       -0.226181058
6.972070959       -10.45934385       -0.350675833
5.307558259       -10.22623708       -0.414421847
5.264156092       -9.298328951       -0.483897087
5.01815327       -8.158826115       -0.526635523
4.953046631       -7.435791432       -0.576666233
3.947337799       -7.615206812       -0.62221379
3.94837923       -6.981881459       -0.658741168
3.993627887       -6.501476718       -0.698555212
4.039636827       -6.069119834       -0.739395367
3.192124279       -6.16852151       -0.760167968
3.261436366       -5.774927105       -0.788852339
3.458841587       -5.634612574       -0.850359204
3.395226412       -5.104438307       -0.84903938
5.90502746       -10.4942244       -0.108027238
6.518189907       -10.66002619       -0.228134362
6.931119018       -10.46735001       -0.350229633
5.265176357       -10.22114972       -0.413559159
5.225814907       -9.297018749       -0.482992288
4.994660257       -8.176739178       -0.52680021
4.934616093       -7.457609743       -0.577181514
3.923043549       -7.625507609       -0.622069071
3.924500644       -6.989616618       -0.658331922
3.973144246       -6.512848437       -0.698464017
4.019900589       -6.079824453       -0.739193546
3.173638599       -6.179169945       -0.760276746
3.239818565       -5.777976961       -0.787907428
3.444636153       -5.650278812       -0.851124587
3.38118846       -5.117309945       -0.849450949
5.864512885       -10.4974507       -0.10787474
6.348967559       -10.45521313       -0.223333252
6.891282694       -10.47687275       -0.349839223
5.218781569       -10.20789157       -0.412372937
5.196780371       -9.312134908       -0.482947048
4.971104566       -8.194585729       -0.526964957
4.908972743       -7.468544466       -0.576859471
3.894641274       -7.627736329       -0.621273229
3.903038404       -7.001624034       -0.658331922
3.951080146       -6.521600181       -0.698099355
4.00232139       -6.093792282       -0.739395367
3.156472012       -6.192419823       -0.760711978
3.221593904       -5.787021884       -0.787789351
3.422662097       -5.653184178       -0.849976483
3.364385865       -5.126003269       -0.849176532
5.821609567       -10.49615591       -0.107677374
6.462984828       -10.71694448       -0.228499455
6.853639648       -10.48959719       -0.349560362
4.752891845       -9.367410894       -0.377828797
5.169639087       -9.330655962       -0.483082768
4.945940274       -8.209797533       -0.526964957
4.910041152       -7.520335775       -0.579693493
3.872123092       -7.641428039       -0.621417949
3.88491757       -7.019669439       -0.658904843
3.929000085       -6.530278266       -0.697734694
3.985237917       -6.108542346       -0.73969804
3.133420466       -6.194091435       -0.759732793
3.209107948       -5.806438285       -0.789088553
3.412968285       -5.676408768       -0.851889972
3.344856763       -5.130492063       -0.84821624
5.783592131       -10.50345495       -0.107569728
6.250791373       -10.43736005       -0.222128419
6.817072638       -10.50386681       -0.349337262
4.694018074       -9.322145184       -0.375420412
5.151099202       -9.364853793       -0.484032836
4.922267781       -8.227503449       -0.527129644
4.899977618       -7.555458511       -0.58123934
3.851797809       -7.65950886       -0.621924409
3.866242621       -7.036796253       -0.659395985
3.908436136       -6.541446645       -0.697643499
3.968101329       -6.123244472       -0.740000771
3.10860454       -6.19212651       -0.758318435
3.200354636       -5.832797232       -0.791332609
3.390961107       -5.679188739       -0.850741867
3.329100924       -5.140729821       -0.84821624
5.75182051       -10.52202671       -0.107578698
6.783190042       -10.5222117       -0.349253607
4.661822079       -9.329350936       -0.375132849
5.114683846       -9.366585019       -0.483308968
4.89292308       -8.235698627       -0.526690418
4.874613143       -7.567100109       -0.580981728
3.82961683       -7.673967453       -0.62214143
3.846067735       -7.051249249       -0.659641497
3.88936517       -6.555119626       -0.69782583
3.947143175       -6.132043581       -0.73959713
3.088706385       -6.199855032       -0.758100819
3.185769799       -5.848692266       -0.792159384
3.379086005       -5.698949607       -0.852145138
3.311706006       -5.148420056       -0.847804728
6.16731087       -10.4428034       -0.221434725
6.742790794       -10.53034489       -0.348835302
4.625630814       -9.328388779       -0.374521753
5.081162615       -9.373450158       -0.482856568
4.864081687       -8.244651279       -0.526306147
4.85029895       -7.580338387       -0.580852863
3.809153573       -7.691936827       -0.622647891
3.82584036       -7.065644827       -0.659887068
3.868730654       -6.566163108       -0.697734694
3.928311528       -6.144124506       -0.739597129
3.070551935       -6.211083841       -0.758318435
3.166866683       -5.856691628       -0.791923171
3.355547228       -5.699033563       -0.850614313
3.316161472       -5.190275422       -0.853017752
5.695686964       -10.5729679       -0.107740175
6.135749786       -10.46253806       -0.221452979
6.702405659       -10.53832955       -0.348416996
4.577576466       -9.303081535       -0.372940143
5.032973108       -9.352927014       -0.481001672
4.840278798       -8.262120502       -0.526470835
4.823808751       -7.590129846       -0.580466446
3.785097256       -7.702691963       -0.622575531
3.816885374       -7.101051562       -0.662097088
3.845550309       -6.572844261       -0.697187643
3.906776487       -6.151947987       -0.739092635
3.056297924       -6.230292346       -0.759515178
3.147944214       -5.864630231       -0.791686958
3.343052951       -5.717863669       -0.851889971
3.280584354       -5.169479853       -0.84794188
5.659450355       -10.58333797       -0.107668404
6.10010006       -10.47526444       -0.221325201
6.612386348       -10.4675705       -0.345405233
4.545505846       -9.309897214       -0.37265258
4.996724279       -9.354226129       -0.480277833
4.814908298       -8.276931148       -0.526470835
4.8020977       -7.607425045       -0.580659684
3.761885083       -7.715164501       -0.622647891
3.77819167       -7.081072995       -0.659150413
3.828868769       -6.590638842       -0.69782583
3.88788412       -6.163904922       -0.739092635
3.038039567       -6.241426878       -0.759732793
3.129936975       -5.874260461       -0.791686958
3.315037614       -5.710080321       -0.8492111
3.268406621       -5.185386193       -0.848902171
5.656022238       -10.65541201       -0.108224597
6.065932099       -10.49046777       -0.221252171
6.571209748       -10.47341367       -0.344931168
4.514743811       -9.319302434       -0.372472843
4.963790604       -9.361568019       -0.479870644
4.790491227       -8.293392868       -0.526580627
4.772374629       -7.611976055       -0.579886731
3.738632045       -7.727567732       -0.622720251
3.752717747       -7.085585072       -0.658495597
3.804650094       -6.595453701       -0.697096448
3.869483405       -6.176646965       -0.739193546
3.021038299       -6.255193855       -0.760276746
3.109114907       -5.878568519       -0.79097826
3.29651299       -5.718504925       -0.848955932
3.261418094       -5.209661733       -0.851234321
6.024758205       -10.49342142       -0.220923585
6.513142415       -10.45195435       -0.343564702
4.48613102       -9.333109175       -0.372472842
4.928997929       -9.365260487       -0.479282525
4.76850197       -8.314113961       -0.526964957
4.741614228       -7.614722002       -0.578984973
3.714043283       -7.737202761       -0.622575531
3.737454522       -7.109415542       -0.659641497
3.782417908       -6.603638634       -0.696731786
3.848413145       -6.185110111       -0.738789962
3.005270024       -6.271604728       -0.761147153
3.094757501       -5.895112981       -0.791923171
3.2769827       -5.725148327       -0.848445716
3.25169613       -5.229737521       -0.852880542
5.582193823       -10.67396588       -0.108063128
5.983623161       -10.49622085       -0.220594985
6.477889151       -10.46678734       -0.343397391
4.460487627       -9.353142775       -0.372724463
4.897467005       -9.375026245       -0.479011085
4.746430918       -8.334778105       -0.527349228
4.719804809       -7.631779503       -0.579178211
3.689001897       -7.745859635       -0.62235851
3.711476222       -7.112895851       -0.658904843
3.7626326       -6.616077694       -0.696822923
3.825235533       -6.190117377       -0.737982738
2.987722084       -6.28438623       -0.761582326
3.074362563       -5.900176919       -0.791332609
3.255972296       -5.72913934       -0.84755272
3.237197476       -5.242217524       -0.853292112
5.590882204       -10.77091836       -0.108870503
5.936125418       -10.48755453       -0.220029083
6.442606112       -10.48150233       -0.343230081
4.419377196       -9.340586784       -0.371682009
4.866842713       -9.386459329       -0.478830125
4.730175593       -8.365815635       -0.528392251
4.694801796       -7.643672628       -0.578984973
3.662663883       -7.75173019       -0.621924409
3.689636572       -7.124249032       -0.658904843
3.742317026       -6.627590053       -0.696822923
3.806226455       -6.20182397       -0.737982738
2.969700054       -6.296220093       -0.761908721
3.053965884       -5.905171054       -0.790742046
3.236430519       -5.735645937       -0.847042444
3.21799222       -5.247058356       -0.852468973
5.887267957       -10.47608181       -0.219408405
6.401565047       -10.4867142       -0.342755986
4.387302486       -9.346864271       -0.371394446
4.832536946       -9.390687695       -0.478287217
4.688846478       -8.352426521       -0.526635523
4.670809463       -7.657188197       -0.578920599
3.635901602       -7.756608769       -0.621417949
3.66867352       -7.137308155       -0.659068576
3.726836077       -6.647726285       -0.697734693
3.786663786       -6.212622433       -0.737881827
2.945313803       -6.294496837       -0.760603141
3.034927879       -5.912745648       -0.790505833
3.219788126       -5.747278798       -0.847297611
3.208062411       -5.267057606       -0.854115192
5.847305633       -10.4801247       -0.219116328
6.351742805       -10.47724069       -0.341807854
4.346794075       -9.334913553       -0.370387962
4.802341196       -9.402800392       -0.478151497
4.670491114       -8.379854944       -0.52745902
4.650397954       -7.676602971       -0.579307017
3.612087493       -7.767727081       -0.621417949
3.648570845       -7.152080853       -0.659395984
3.701096191       -6.649557485       -0.696731786
3.756766881       -6.206337019       -0.735762941
2.931848192       -6.316126522       -0.762126337
3.01677362       -5.922029041       -0.790505833
3.197801552       -5.74932893       -0.846149506
3.191375599       -5.27602785       -0.853978042
5.796715767       -10.46477872       -0.218422634
6.306163721       -10.47441263       -0.341082794
4.310172475       -9.330967353       -0.369704982
4.755404822       -9.381847591       -0.47634187
4.63074075       -8.368807656       -0.52586698
4.634541446       -7.703660742       -0.580273208
3.587403986       -7.776960781       -0.621273229
3.623010214       -7.1561274       -0.658741168
3.6869396       -6.672211963       -0.697917025
3.733095336       -6.210159371       -0.734854864
2.917030382       -6.335023774       -0.76332308
2.997694697       -5.929484058       -0.790269619
3.174394446       -5.748693784       -0.844618681
3.1802747       -5.29428522       -0.855349903
5.759283483       -10.4728772       -0.218221826
6.268869455       -10.48513082       -0.340803933
4.279860031       -9.340513106       -0.369561215
4.694726635       -9.333030641       -0.473129746
4.607447205       -8.38735125       -0.52614146
4.615491336       -7.725553188       -0.580852863
3.559792815       -7.779767993       -0.620622107
3.605960336       -7.177005168       -0.659641497
3.665973265       -6.682619154       -0.69782583
3.71759488       -6.227562772       -0.73556112
2.897167988       -6.343038968       -0.763214301
2.980825114       -5.941315785       -0.790623969
3.146730572       -5.740141509       -0.84193981
3.165031997       -5.305718343       -0.855624262
5.734312108       -10.50366005       -0.21849565
6.229017205       -10.49142136       -0.340385628
4.24746201       -9.345410981       -0.369237681
4.662055629       -9.339344957       -0.472722586
4.590776648       -8.418103113       -0.527184541
4.593295301       -7.742251702       -0.581046101
3.530549299       -7.778845712       -0.619681546
3.590595277       -7.201413266       -0.660869292
3.640691039       -6.685089192       -0.696914118
3.702530259       -6.245785631       -0.736368346
2.877284003       -6.35099202       -0.763105522
2.962140839       -5.949543877       -0.790505833
3.12341589       -5.739314269       -0.840408984
3.147729605       -5.313699407       -0.855349903
5.698249223       -10.51417094       -0.218349603
6.18461617       -10.48981574       -0.339716328
4.214663556       -9.349287799       -0.368878235
4.624512463       -9.335701311       -0.471817759
4.569682194       -8.440928319       -0.5277335
4.572053658       -7.76060653       -0.581368146
3.503392054       -7.782365019       -0.619102726
3.566274892       -7.207928831       -0.660460047
3.613060577       -6.683086783       -0.695546548
3.681332082       -6.253685698       -0.735964762
2.857378426       -6.35888293       -0.762996685
2.941674772       -5.954152123       -0.78991527
3.100607564       -5.739271224       -0.839005772
3.128399213       -5.318208399       -0.854526762
5.693440348       -10.58267219       -0.219408405
6.130183196       -10.47078389       -0.338489306
4.180249679       -9.349401753       -0.368374993
4.590560978       -9.339086558       -0.471274879
4.548491132       -8.463703269       -0.528282459
4.54771901       -7.773735483       -0.581303772
3.477466575       -7.788522999       -0.618740985
3.5463406       -7.223309108       -0.660869292
3.5972492       -6.702914736       -0.696458261
3.668655695       -6.276116204       -0.737276422
2.839070113       -6.370343292       -0.76332308
2.922082415       -5.960473948       -0.789560979
3.078297482       -5.740015718       -0.837730112
3.111069388       -5.326070758       -0.854252403
5.67743124       -10.63095773       -0.220047337
6.083963508       -10.46534502       -0.337708486
4.147900607       -9.353961116       -0.36805146
4.550939563       -9.330678982       -0.470143851
4.530023001       -8.491713225       -0.529160852
4.524850396       -7.789376677       -0.581432578
3.45194007       -7.795507193       -0.618451545
3.52198069       -7.229675562       -0.660460047
3.579477256       -6.719192921       -0.697005312
3.646886496       -6.283039747       -0.736771929
2.821522211       -6.383569711       -0.763867091
2.903782192       -5.969411051       -0.78956098
3.059740769       -5.747681783       -0.837474945
3.095708419       -5.337304131       -0.854526763
5.630271983       -10.62094165       -0.219481421
6.048829082       -10.47876628       -0.337541175
4.109528218       -9.344686818       -0.367188772
4.520551298       -9.341000925       -0.469962892
4.507220141       -8.51174884       -0.529545124
4.501430312       -7.804086871       -0.58149701
3.427606467       -7.805147703       -0.618379244
3.498482561       -7.237754652       -0.660214476
3.550001527       -6.713416722       -0.695273023
3.632561193       -6.302818604       -0.737780975
2.801126249       -6.390374895       -0.763649475
2.885454685       -5.978291719       -0.78956098
3.041165882       -5.755288048       -0.837219837
3.083274019       -5.353643259       -0.855624262
5.606972877       -10.65586108       -0.219846529
6.023611196       -10.50941688       -0.337931586
4.076045887       -9.346258042       -0.366757413
4.477170307       -9.324207364       -0.468424704
4.495486746       -8.552935345       -0.531246955
4.481434143       -7.824787839       -0.582012292
3.40603384       -7.821113317       -0.618813345
3.47583       -7.247554961       -0.660132638
3.540495679       -6.745438263       -0.697461168
3.611230661       -6.310479385       -0.737377333
2.781111367       -6.398026797       -0.763540696
2.867957719       -5.988906954       -0.789797193
3.018427189       -5.75492951       -0.835816566
3.067326504       -5.363937302       -0.855761472
5.639055258       -10.79708689       -0.222402243
5.977496616       -10.50352106       -0.337150765
4.039022651       -9.339457297       -0.36600255
4.441239073       -9.322567054       -0.467655596
4.471996642       -8.571998803       -0.531576331
4.463819996       -7.849776798       -0.582849618
3.384395493       -7.837019664       -0.619247445
3.452721956       -7.256384743       -0.659968905
3.522084837       -6.760684487       -0.697917025
3.588412859       -6.315473956       -0.736671077
2.759108633       -6.401051804       -0.762887906
2.847865938       -5.994089892       -0.789324766
2.995719188       -5.754485428       -0.834413353
3.051833876       -5.375045565       -0.856035833
2.353330074       -5.467268475       -0.87353767
5.53412199       -10.67586182       -0.219554452
5.929999908       -10.49483124       -0.336286259
4.019015437       -9.372011217       -0.366793355
4.417312353       -9.346084034       -0.468153265
4.434657932       -8.564397823       -0.530258829
4.45051001       -7.882552774       -0.584266659
3.363869455       -7.855618095       -0.619898567
3.434272498       -7.275054854       -0.660705617
3.501784222       -6.772342806       -0.698008161
3.568042639       -6.324720276       -0.736469256
2.739457504       -6.409486863       -0.762887907
2.830309858       -6.004595125       -0.789560979
2.975774153       -5.759243451       -0.833775524
3.03776124       -5.388697542       -0.856721763
2.340429552       -5.483562393       -0.874989699
5.478929212       -10.64922533       -0.21865995
5.889460473       -10.49815513       -0.335812194
3.985551       -9.373261122       -0.366361996
4.380560266       -9.342407314       -0.467293677
4.407905653       -8.577075119       -0.530203933
4.432649297       -7.907485533       -0.585103985
3.340142718       -7.86681874       -0.619970926
3.411514224       -7.284654411       -0.660623722
3.480535826       -6.782168456       -0.697917025
3.549594282       -6.337372916       -0.736671076
2.719780462       -6.417861223       -0.762887907
2.815660228       -6.021345806       -0.790623968
2.954922816       -5.762167848       -0.832882586
3.021698492       -5.398855999       -0.856858914
5.845550965       -10.49521461       -0.335142923
3.956387234       -9.384523998       -0.366326054
4.338395242       -9.32681762       -0.465845969
4.401532133       -8.629694503       -0.532619411
4.405456627       -7.915816045       -0.584717509
3.320248639       -7.887141144       -0.620766768
3.387889417       -7.292374597       -0.660378209
3.463779639       -6.800801109       -0.698737543
3.532552332       -6.352580718       -0.73717557
2.701618395       -6.429840814       -0.76332308
2.793413027       -6.021848578       -0.789560979
2.934081887       -5.765018631       -0.831989589
3.005601863       -5.408967036       -0.856996123
5.804617612       -10.49735364       -0.334640962
3.929889772       -9.402150136       -0.366541734
4.304738064       -9.329198336       -0.46530306
4.384054674       -8.660975722       -0.533717389
4.380185335       -7.927547642       -0.584588703
3.289504915       -7.881643159       -0.619536826
3.360495093       -7.291872524       -0.659395984
3.445144872       -6.815839188       -0.699193399
3.513527182       -6.364259724       -0.737276423
2.682261445       -6.439016464       -0.763431917
2.781151628       -6.043921872       -0.791332609
2.908332325       -5.758057825       -0.829693381
2.988514805       -5.417295448       -0.856858914
5.756510922       -10.48619587       -0.333720696
3.906764331       -9.428010647       -0.367080917
4.275680106       -9.341453718       -0.465257821
4.357910852       -8.67527708       -0.533772285
4.354403557       -7.938323935       -0.584395465
3.262258377       -7.884325187       -0.618958006
3.340180004       -7.306680111       -0.65980523
3.420199329       -6.818365834       -0.698372881
3.493029043       -6.37326395       -0.73707466
2.662494007       -6.447215414       -0.763431917
2.759297324       -6.045198713       -0.790387755
2.890208732       -5.766066667       -0.829565827
2.976638817       -5.435126069       -0.858230774
5.710919273       -10.47923074       -0.332939846
3.913136341       -9.5259216       -0.370423904
4.242458499       -9.344520784       -0.464760181
4.330383885       -8.686818807       -0.533662493
4.328597173       -7.949015639       -0.584202227
3.237675756       -7.89337429       -0.618885646
3.32803706       -7.339585423       -0.661851517
3.39127711       -6.81277988       -0.696731787
3.470606828       -6.378706957       -0.736469256
2.640818794       -6.450753628       -0.762887906
2.739918865       -6.051826464       -0.790151542
2.853069265       -5.735832988       -0.823952916
2.965154517       -5.453805727       -0.859739844
5.674937049       -10.48966854       -0.332716775
3.961909958       -9.729472365       -0.377864739
4.210898315       -9.351116769       -0.464443502
4.316109324       -8.725122854       -0.535199637
4.306562301       -7.966647509       -0.584524271
3.214195396       -7.905117874       -0.619030366
3.296510551       -7.329764546       -0.660050801
3.359334043       -6.800830837       -0.694452505
3.44912966       -6.385822989       -0.736065672
2.6187729       -6.453298456       -0.762235116
2.722559438       -6.062921548       -0.790505832
2.832824753       -5.739222356       -0.823187474
2.949349539       -5.464620236       -0.860014204
5.633742708       -10.49029713       -0.33218692
4.007600402       -9.928776771       -0.385125836
4.180153134       -9.359430659       -0.464217302
4.29152045       -8.742804955       -0.535474116
4.287762965       -7.990374596       -0.585297224
3.19253733       -7.921417508       -0.619536827
3.281721603       -7.357137298       -0.661605946
3.340206598       -6.814681851       -0.694817166
3.4285818       -6.394621108       -0.735863851
2.596736353       -6.455768769       -0.761582326
2.707985792       -6.08031693       -0.791686958
2.816512392       -5.750558513       -0.823570194
2.931634784       -5.471896887       -0.859739844
5.595889283       -10.49694656       -0.331852269
4.000877443       -10.00040838       -0.387426396
4.151014526       -9.371298271       -0.464172062
4.266426746       -8.759520345       -0.5356937
4.268858437       -8.014060963       -0.586070118
3.171549739       -7.939510406       -0.620188007
3.261554029       -7.37263952       -0.662097088
3.32755927       -6.84191275       -0.696549456
3.409882112       -6.406866565       -0.736065673
2.574709392       -6.458165042       -0.760929537
2.690121343       -6.090412741       -0.791923171
2.797556106       -5.756496224       -0.823187473
2.915763661       -5.482614199       -0.860014204
5.55290575       -10.49374387       -0.331210894
3.983807157       -10.0470083       -0.388756385
4.116619353       -9.371184256       -0.463538673
4.241705122       -8.777063834       -0.53596818
4.248916015       -8.035941363       -0.586714264
3.151215228       -7.959404192       -0.620983848
3.237718478       -7.379873241       -0.661851517
3.303523305       -6.845811362       -0.69591121
3.390210093       -6.417297469       -0.736065672
2.554153276       -6.464184675       -0.760711979
2.667040867       -6.088632296       -0.790623969
2.77471278       -5.754331347       -0.821656707
2.903091342       -5.499417665       -0.861248855
5.506740474       -10.48418238       -0.330374283
3.990612149       -10.15498516       -0.392458846
4.081864742       -9.370032025       -0.462860074
4.21648438       -8.793636801       -0.536187763
4.22702447       -8.054241006       -0.587100682
3.131517331       -7.981104595       -0.62192441
3.221026272       -7.403479979       -0.663079313
3.288955788       -6.869386974       -0.697278779
3.369119906       -6.425024992       -0.735762941
2.534309358       -6.471990414       -0.760711979
2.642809865       -6.084035028       -0.788970417
2.752337122       -5.752975017       -0.820253435
2.889423801       -5.51443995       -0.862209145
5.463921333       -10.48063982       -0.329732877
3.962339139       -10.17463019       -0.392746409
4.032894744       -9.335740906       -0.460552779
4.190772634       -8.809236382       -0.536352451
4.204599992       -8.071596807       -0.587422726
3.11316153       -8.006477001       -0.623154351
3.19198073       -7.398685202       -0.66176968
3.266156049       -6.875846829       -0.696914117
3.346177143       -6.429153639       -0.735056627
2.518037934       -6.489002327       -0.761799943
2.624917541       -6.093938234       -0.78920663
2.727869474       -5.747056139       -0.818212393
2.872035197       -5.522400084       -0.862071937
5.423931929       -10.4822617       -0.329258812
3.937581638       -10.20352051       -0.393393418
3.994007074       -9.324194306       -0.459376511
4.167988318       -8.831081896       -0.536901468
4.181191507       -8.087118031       -0.587615964
3.090376425       -8.020644092       -0.623516093
3.169658914       -7.409359837       -0.661851518
3.245470493       -6.886735865       -0.697005312
3.322327368       -6.431433881       -0.734148549
2.497047762       -6.493913419       -0.761473547
2.854170402       -5.52942495       -0.861797576
5.38444051       -10.48462489       -0.328812612
3.897692935       -10.19315032       -0.39253073
3.954838145       -9.311578028       -0.458155003
4.149343549       -8.861913251       -0.537999387
4.154082926       -8.095467926       -0.58729392
3.067177691       -8.033814       -0.623805473
3.148079848       -7.421801969       -0.662097088
3.223061769       -6.893954049       -0.696731787
3.308481088       -6.453105478       -0.735460268
2.47994432       -6.508975299       -0.762343895
2.834031493       -5.531984051       -0.860837285
5.345893876       -10.48862679       -0.328422201
3.859675129       -10.18730378       -0.39184775
3.929741236       -9.331953503       -0.458562163
4.124239188       -8.879129321       -0.538273925
4.118358065       -8.086832227       -0.585748073
3.040751513       -8.038522317       -0.623443732
3.12645436       -7.434181026       -0.6623426
3.199382157       -6.898389254       -0.696184735
3.285960592       -6.45790544       -0.734854864
2.460665565       -6.518412768       -0.762561511
2.82198467       -5.550365377       -0.862346355
3.818920305       -10.17383584       -0.390877207
3.915333178       -9.378074716       -0.460236099
4.09112885       -8.879044155       -0.537505323
4.092628353       -8.09764797       -0.585619267
3.013625358       -8.041275966       -0.622937272
3.113987556       -7.468575043       -0.664552621
3.178203192       -6.90817251       -0.696184736
3.2688235       -6.473284338       -0.735460268
2.437869921       -6.518482652       -0.761691105
2.662524407       -5.791813718       -0.819870773
2.807620345       -5.564303346       -0.863169437
3.782116331       -10.17051726       -0.390302082
3.910994079       -9.449116741       -0.463131514
4.06262392       -8.888829845       -0.537340636
4.068213438       -8.111058012       -0.5856837
2.992412237       -8.059833317       -0.623660812
3.099054849       -7.497435711       -0.6662715
3.156994298       -6.917890763       -0.696184736
3.248502494       -6.482393122       -0.735359357
2.793640737       -5.57909086       -0.864129728
3.746405043       -10.16988174       -0.389834781
3.916873425       -9.546097149       -0.467293676
4.03244873       -8.894886047       -0.536956365
4.044199221       -8.125287565       -0.585812506
2.969392398       -8.073656994       -0.624022553
3.073393132       -7.500452627       -0.665698521
3.136987616       -6.930265324       -0.696458261
3.22992853       -6.495001241       -0.73566203
2.777833558       -5.590296195       -0.864541296
3.713816339       -10.17757312       -0.389690986
3.953433489       -9.720007954       -0.475210842
4.003092861       -8.902662049       -0.536681885
4.021903676       -8.143025041       -0.586198982
2.944608745       -8.082728881       -0.624022553
3.043991633       -7.494148681       -0.66430705
3.117750415       -6.944399265       -0.696914118
3.205143912       -6.495065985       -0.734552132
2.760231481       -5.597904087       -0.864404088
3.680875972       -10.18421965       -0.389511248
3.971780094       -9.851611258       -0.481046912
3.971694319       -8.905782548       -0.536132867
3.993828062       -8.149053611       -0.585748074
2.920813102       -8.094539136       -0.624239574
3.0273134       -7.519169469       -0.665698521
3.101291603       -6.96484829       -0.698008161
3.183452203       -6.501294633       -0.734148549
2.750880488       -5.622361326       -0.866873447
3.648603417       -10.19264134       -0.389403423
3.974899431       -9.947239461       -0.485118595
3.949603733       -8.929796478       -0.536846573
3.969681248       -8.163062841       -0.585876879
2.898650864       -8.110975084       -0.624818394
3.004230576       -7.528421604       -0.665698521
3.079104642       -6.972508395       -0.69782583
3.162622042       -6.509241156       -0.733946728
2.729292326       -5.621863593       -0.865501587
2.011052077       -5.64845113       -0.879926574
3.615646124       -10.19907785       -0.389223685
3.94877678       -9.970532775       -0.485661503
3.929809456       -8.959245731       -0.537889595
3.943317759       -8.172507145       -0.5856837
2.875416702       -8.124531304       -0.625180135
2.982952384       -7.542236949       -0.666107766
3.056100711       -6.978272929       -0.697461168
3.143933256       -6.52160207       -0.73424946
2.722348685       -5.651628633       -0.868794029
1.999964439       -5.672323081       -0.882685375
3.581359641       -10.20163615       -0.388900181
3.917074216       -9.979810299       -0.485525783
3.90668527       -8.981331051       -0.538493508
3.927275071       -8.203468563       -0.587036308
2.848498244       -8.127667102       -0.624746034
2.959435247       -7.550425015       -0.666025929
3.030710535       -6.978482168       -0.696549456
3.120046839       -6.523139092       -0.733341324
2.713112299       -5.6769346       -0.87140054
1.984835363       -5.684971123       -0.883701813
3.545122647       -10.1984165       -0.388360997
3.881006015       -9.977815748       -0.484847155
3.87911252       -8.993274382       -0.538493508
3.899091759       -8.209168422       -0.586585399
2.819625699       -8.1250612       -0.623877833
2.937339595       -7.562255997       -0.6662715
3.00889267       -6.986832782       -0.696458261
3.100872419       -6.534478292       -0.733543145
2.707989953       -5.711187293       -0.875378911
1.967061721       -5.690098381       -0.883556615
3.510565297       -10.19979491       -0.388001521
3.852531952       -9.995267933       -0.485118594
3.847184183       -8.99503472       -0.537889595
3.873462753       -8.220189148       -0.586521026
2.794685132       -8.133672795       -0.623877832
2.913767213       -7.570302204       -0.666189663
2.986660991       -6.994199542       -0.69627593
3.082081737       -6.546661334       -0.733845877
2.694250329       -5.727535538       -0.876613621
1.948634204       -5.69329815       -0.883121024
3.477322331       -10.20484152       -0.387785842
3.832541331       -10.03503741       -0.486475822
3.816061302       -8.998522504       -0.537395532
3.854986909       -8.246498547       -0.58755159
2.769718093       -8.142209423       -0.623877833
2.889817682       -7.57734312       -0.666025929
2.964024308       -7.00057816       -0.696002404
3.064508304       -6.561494476       -0.734451222
2.671220364       -5.724105367       -0.874830191
1.929888136       -5.695501697       -0.882540179
3.440248199       -10.19841772       -0.387138804
3.802089648       -10.04768285       -0.486521062
3.788823284       -9.011107733       -0.537450428
3.830088668       -8.259192658       -0.587615964
2.75331931       -8.17618951       -0.625831316
2.863386712       -7.577782588       -0.665289275
2.946772862       -7.019739214       -0.697005312
3.046036392       -6.574476377       -0.734854864
2.646572368       -5.716992419       -0.87249804
3.405778519       -10.19944441       -0.386779358
3.77124602       -10.05929964       -0.486521062
3.763080698       -9.027297242       -0.537724907
3.801395389       -8.263651166       -0.587100682
2.731060883       -8.193113515       -0.626482496
2.83767889       -7.579998158       -0.664716296
2.929814261       -7.039779422       -0.698099355
3.027098244       -6.586502542       -0.735157537
2.626540032       -5.719684033       -0.871674958
3.364435446       -10.17948207       -0.385629078
3.748018699       -10.09142556       -0.48751637
3.736511583       -9.041568305       -0.537889595
3.773125179       -8.268919669       -0.586649832
2.705286944       -8.199558927       -0.626337775
2.81371726       -7.58679936       -0.664552621
2.911241152       -7.056099214       -0.698828737
3.000686735       -6.582179715       -0.733644056
2.605695267       -5.720503904       -0.870577459
3.330082294       -10.18025776       -0.385269632
3.714281422       -10.0953765       -0.487154451
3.70724077       -9.049293697       -0.537670011
3.748561768       -8.282274705       -0.586778638
2.679499147       -8.205924613       -0.626193056
2.791459143       -7.598202406       -0.664798191
2.893349505       -7.07421512       -0.69974045
2.97801922       -6.585915283       -0.733038651
2.581199465       -5.713125355       -0.868245308
3.296371876       -10.18282007       -0.384982069
3.676450507       -10.08795238       -0.486249623
3.68284162       -9.06895086       -0.538164133
3.725586571       -8.299198718       -0.587165114
2.651244151       -8.204615513       -0.625469574
2.775973793       -7.628271609       -0.666680745
2.874999908       -7.091364348       -0.700560968
2.957799891       -6.595020839       -0.733038651
2.562849479       -5.71920967       -0.867970948
3.262981852       -10.18622295       -0.384730448
3.647179778       -10.1038822       -0.486475822
3.651645684       -9.071870438       -0.537670011
3.700919181       -8.31241327       -0.58729392
2.623630219       -8.205111152       -0.624890754
2.751881774       -7.634877455       -0.666517071
2.856572397       -7.108467198       -0.701381544
2.937552764       -6.604064258       -0.733038651
2.542877383       -5.72161408       -0.867147807
3.223864969       -10.17141677       -0.383795847
3.620199777       -10.1263117       -0.487018731
3.621576328       -9.077466379       -0.537340636
3.67660903       -8.326466438       -0.587487158
2.593029569       -8.196004632       -0.623588452
2.721408957       -7.623572714       -0.664798192
2.837329787       -7.123674014       -0.702019732
2.921293518       -6.622147887       -0.734047639
2.519319092       -5.715792894       -0.865090018
3.194737533       -10.18793441       -0.384047468
3.587448617       -10.13266261       -0.486792531
3.594811496       -9.09131959       -0.537505323
3.648244433       -8.331308399       -0.587036308
2.566382802       -8.199162752       -0.623226712
2.698007394       -7.631885902       -0.664798192
2.815827006       -7.133271196       -0.702110868
2.914122169       -6.66115832       -0.737377333
2.499391045       -5.718049181       -0.864266936
3.159617155       -10.18527978       -0.383580168
3.558328324       -10.14927735       -0.487063971
3.570545816       -9.111602827       -0.538054283
3.622667038       -8.342462112       -0.587036309
2.540920917       -8.206044407       -0.623154351
2.668652989       -7.62319545       -0.663324825
2.794291845       -7.14280388       -0.702202062
2.900799702       -6.68649626       -0.739193546
2.483412483       -5.729325648       -0.864815657
3.12337043       -10.178684       -0.382969072
3.488514735       -10.04878602       -0.48172554
3.541129134       -9.11879057       -0.537834699
3.593503668       -8.345287728       -0.586456594
2.516025451       -8.214754649       -0.623226711
2.650149002       -7.64547213       -0.664552621
2.776684425       -7.162485446       -0.703296106
2.8849899       -6.706331355       -0.740404355
2.462303       -5.72872729       -0.863581006
3.088064679       -10.17483043       -0.38246583
3.444679943       -10.02165266       -0.479915884
3.514212305       -9.132407392       -0.537999387
3.57023504       -8.361779838       -0.58684307
2.491389328       -8.224344568       -0.623371372
2.628621611       -7.659222385       -0.665043704
2.749340498       -7.15702613       -0.701928537
